993661.880005 10838108.219997 277.820007
993658.790009 10838112.399998 279.519989
993662.709991 10838113.449997 278.279999
993657.790009 10838114.910000 280.250000
993658.369995 10838112.809998 279.739990
993656.549988 10838111.619999 280.209991
993659.559998 10838115.109997 279.649994
993658.700012 10838109.899998 279.200012
993664.149994 10838113.469997 277.779999
993658.459991 10838115.269997 280.089996
993658.269989 10838110.329998 279.380005
993657.260010 10838112.139999 280.049988
993657.339996 10838114.199997 280.320007
993664.809998 10838114.029999 277.580017
993660.350006 10838108.180000 278.360016
993659.829987 10838110.910000 279.080017
993658.880005 10838114.889999 279.850006
993658.250000 10838109.899998 279.350006
993662.769989 10838115.099999 278.519989
993660.339996 10838107.739998 278.299988
993663.179993 10838114.969997 278.350006
993657.309998 10838113.369999 280.209991
993659.369995 10838110.149998 278.970001
993657.640015 10838110.849999 279.700012
993661.000000 10838113.769997 278.940002
993660.820007 10838108.889999 278.290009
993657.299988 10838112.969997 280.160004
993658.500000 10838116.090000 280.160004
993662.720001 10838113.859997 278.360016
993658.869995 10838114.489998 279.799988
993664.119995 10838112.669998 277.700012
993663.709991 10838113.259998 277.940002
993661.059998 10838115.389999 279.149994
993660.869995 10838110.119999 278.459991
993659.399994 10838110.980000 279.080017
993658.760010 10838111.579998 279.399994
993659.730011 10838108.070000 278.549988
993656.040009 10838110.329998 280.220001
993656.049988 10838110.750000 280.269989
993658.320007 10838111.579998 279.570007
993659.500000 10838113.469997 279.410004
993657.130005 10838108.829998 279.610016
993661.720001 10838115.389999 278.899994
993662.519989 10838108.500000 277.549988
993660.649994 10838115.769997 279.369995
993658.429993 10838114.449997 279.970001
993659.320007 10838108.910000 278.809998
993658.350006 10838112.389999 279.690002
993661.040009 10838114.969997 279.190002
993660.790009 10838108.070000 278.169983
993662.130005 10838115.180000 278.769989
993657.579987 10838109.219997 279.480011
993657.220001 10838110.899998 279.850006
993658.679993 10838109.480000 279.139984
993659.350006 10838109.739998 278.919983
993659.420013 10838111.389999 279.200012
993659.750000 10838108.489998 278.619995
993657.179993 10838110.070000 279.790009
993656.010010 10838109.509998 280.089996
993658.220001 10838109.079998 279.239990
993658.480011 10838115.680000 280.119995
993659.309998 10838108.489998 278.760010
993660.839996 10838109.309998 278.339996
993657.779999 10838114.500000 280.190002
993662.119995 10838114.779999 278.700012
993660.809998 10838108.480000 278.239990
993659.609985 10838116.349999 279.790009
993664.179993 10838114.250000 277.880005
993660.369995 10838108.590000 278.410004
993663.760010 10838114.509998 278.089996
993656.519989 10838110.820000 280.080017
993656.019989 10838109.910000 280.139984
993658.670013 10838109.059998 279.059998
993658.200012 10838108.649998 279.190002
993656.459991 10838109.189999 279.889984
993657.670013 10838111.660000 279.799988
993661.920013 10838109.449997 278.000000
993658.380005 10838113.209999 279.809998
993660.399994 10838109.449997 278.519989
993658.850006 10838114.070000 279.750000
993658.730011 10838110.739998 279.299988
993657.760010 10838114.090000 280.130005
993657.809998 10838115.320000 280.320007
993659.510010 10838113.869999 279.480011
993661.029999 10838114.579998 279.049988
993658.649994 10838108.649998 279.040009
993660.019989 10838115.779999 279.600006
993663.730011 10838113.680000 277.950012
993664.160004 10838113.849999 277.830017
993657.200012 10838110.500000 279.820007
993661.420013 10838107.500000 277.889984
993657.609985 10838110.039997 279.610016
993658.510010 10838116.509998 280.239990
993659.970001 10838114.570000 279.419983
993657.329987 10838113.789997 280.250000
993656.470001 10838109.599999 279.950012
993656.579987 10838112.439999 280.320007
993662.750000 10838114.680000 278.459991
993661.660004 10838113.730000 278.750000
993661.480011 10838109.169998 278.089996
993658.779999 10838112.000000 279.480011
993663.170013 10838114.549999 278.279999
993661.910004 10838109.049999 277.929993
993657.279999 10838112.559998 280.089996
993664.549988 10838124.380001 279.110016
993656.559998 10838112.039997 280.260010
993658.839996 10838113.649998 279.690002
993659.940002 10838113.769997 279.309998
993659.790009 10838109.719997 278.750000
993661.429993 10838107.919998 277.929993
993662.070007 10838113.549999 278.540009
993658.299988 10838111.160000 279.500000
993664.109985 10838112.289997 277.570007
993663.149994 10838114.129997 278.250000
993658.420013 10838114.049999 279.880005
993660.390015 10838109.019997 278.489990
993659.579987 10838115.509998 279.739990
993661.690002 10838114.549999 278.850006
993659.529999 10838114.279999 279.549988
993660.619995 10838114.939999 279.260010
993659.600006 10838115.930000 279.730011
993661.890015 10838108.629997 277.889984
993662.089996 10838113.959999 278.589996
993661.859985 10838107.809998 277.799988
993660.420013 10838109.859997 278.589996
993658.239990 10838109.489998 279.309998
993662.540009 10838109.309998 277.730011
993660.600006 10838114.509998 279.250000
993657.730011 10838113.289997 280.040009
993660.000000 10838115.379997 279.549988
993658.709991 10838110.329998 279.239990
993657.690002 10838112.070000 279.850006
993658.820007 10838113.239998 279.639984
993659.480011 10838113.049999 279.380005
993660.570007 10838113.669998 279.080017
993659.390015 10838110.570000 279.049988
993661.709991 10838114.969997 278.860016
993656.500000 10838110.410000 280.049988
993662.109985 10838114.369999 278.649994
993661.850006 10838107.399998 277.720001
993658.630005 10838108.230000 278.959991
993658.450012 10838114.859997 280.010010
993660.029999 10838116.189999 279.639984
993660.429993 10838110.289997 278.679993
993658.899994 10838115.309998 279.910004
993661.019989 10838114.180000 278.989990
993657.559998 10838108.799999 279.440002
993658.290009 10838110.739998 279.450012
993660.779999 10838107.649998 278.130005
993659.929993 10838113.359997 279.250000
993659.779999 10838109.299999 278.720001
993658.339996 10838111.980000 279.619995
993662.730011 10838114.259998 278.429993
993657.250000 10838111.739998 279.959991
993658.750000 10838111.160000 279.339996
993657.660004 10838111.269997 279.739990
993658.809998 10838112.829998 279.549988
993659.339996 10838109.329998 278.869995
993657.149994 10838109.250000 279.660004
993663.140015 10838113.709999 278.179993
993663.750000 10838114.090000 278.029999
993659.809998 10838110.109997 278.839996
993657.230011 10838111.320000 279.929993
993661.450012 10838108.340000 277.989990
993661.670013 10838114.149998 278.760010
993655.359985 10838109.820000 280.389984
993661.459991 10838108.750000 278.040009
993664.130005 10838113.070000 277.739990
993657.589996 10838109.629997 279.540009
993660.850006 10838109.699997 278.399994
993656.529999 10838111.230000 280.160004
993658.529999 10838116.910000 280.260010
993660.760010 10838107.250000 278.049988
993658.910004 10838115.719997 279.989990
993662.529999 10838108.889999 277.690002
993657.700012 10838112.480000 279.959991
993663.700012 10838112.849999 277.850006
993656.489990 10838110.000000 279.989990
993659.290009 10838108.079998 278.730011
993660.579987 10838114.090000 279.139984
993660.630005 10838115.349999 279.320007
993661.829987 10838106.989998 277.639984
993661.399994 10838107.090000 277.830017
993658.929993 10838116.129997 280.029999
993659.989990 10838114.980000 279.510010
993659.549988 10838114.699997 279.589996
993659.760010 10838108.889999 278.660004
993661.079987 10838115.799999 279.220001
993657.170013 10838109.660000 279.700012
993658.950012 10838116.549999 280.070007
993656.070007 10838111.149998 280.309998
993663.119995 10838113.309998 278.130005
993657.720001 10838112.879997 279.950012
993658.399994 10838113.629997 279.839996
993657.630005 10838110.439999 279.630005
993657.750000 10838113.699997 280.100006
993659.429993 10838111.789997 279.360016
993661.500000 10838109.590000 278.169983
993659.959991 10838114.180000 279.399994
993659.820007 10838110.519997 278.889984
