993665.820007 10838112.029999 275.679993
993664.079987 10838110.139999 275.679993
993665.239990 10838112.739998 275.679993
993663.040009 10838109.399998 275.690002
993665.140015 10838110.180000 275.679993
993663.750000 10838112.329998 275.669983
993663.100006 10838110.689999 275.679993
993663.579987 10838108.449997 275.700012
993665.170013 10838111.039997 275.669983
993664.839996 10838113.049999 275.700012
993663.559998 10838108.019997 275.709991
993663.690002 10838111.029999 275.679993
993663.510010 10838106.739998 275.600006
993665.190002 10838111.459999 275.679993
993666.220001 10838111.789997 275.679993
993664.070007 10838109.730000 275.690002
993664.679993 10838109.230000 275.669983
993664.820007 10838112.629997 275.679993
993663.619995 10838109.309998 275.700012
993664.750000 10838110.930000 275.700012
993665.220001 10838112.329998 275.679993
993665.260010 10838113.169998 275.669983
993663.079987 10838110.250000 275.669983
993663.660004 10838110.169998 275.700012
993663.970001 10838107.279999 275.660004
993665.209991 10838111.889999 275.690002
993664.000000 10838108.099999 275.709991
993665.859985 10838112.889999 275.660004
993664.709991 10838110.079998 275.690002
993664.799988 10838112.189999 275.700012
993665.160004 10838110.609997 275.660004
993664.660004 10838108.809998 275.669983
993665.880005 10838113.329998 275.639984
993662.950012 10838107.250000 275.639984
993664.119995 10838110.949997 275.690002
993663.019989 10838108.959999 275.709991
993663.540009 10838107.590000 275.739990
993664.859985 10838113.480000 275.660004
993664.640015 10838108.379997 275.669983
993664.769989 10838111.359997 275.690002
993665.079987 10838108.889999 275.669983
993664.019989 10838108.509998 275.709991
993664.130005 10838111.359997 275.690002
993665.100006 10838109.309998 275.679993
993662.970001 10838107.680000 275.679993
993653.850006 10838128.499996 276.850006
993665.750000 10838110.289997 275.649994
993662.540009 10838107.489998 275.669983
993662.989990 10838108.109997 275.709991
993650.779999 10838119.639996 276.519989
993664.149994 10838111.750000 275.709991
993663.010010 10838108.539997 275.690002
993666.239990 10838112.209999 275.669983
993663.600006 10838108.879997 275.720001
993663.529999 10838107.160000 275.690002
993664.730011 10838110.500000 275.690002
993663.950012 10838106.879997 275.660004
993664.619995 10838107.949997 275.679993
993654.700012 10838129.789997 276.959991
993664.100006 10838110.539997 275.690002
993664.029999 10838108.910000 275.669983
993666.279999 10838113.039997 275.660004
993663.119995 10838111.119999 275.630005
993664.779999 10838111.779999 275.709991
993663.709991 10838111.459999 275.669983
993665.769989 10838110.730000 275.669983
993663.679993 10838110.609997 275.690002
993662.549988 10838107.910000 275.679993
993662.570007 10838108.329998 275.690002
993664.170013 10838112.160000 275.700012
993664.690002 10838109.649998 275.700012
993665.839996 10838112.449997 275.679993
993663.640015 10838109.750000 275.660004
993665.809998 10838111.590000 275.679993
993664.049988 10838109.320000 275.700012
993666.260010 10838112.619999 275.669983
993665.279999 10838113.609997 275.639984
993665.119995 10838109.750000 275.660004
993665.790009 10838111.149998 275.669983
993663.980011 10838107.689999 275.700012
993663.730011 10838111.889999 275.679993
