993651.239990 10838112.519997 278.589996
993659.329987 10838125.049999 279.299988
993653.109985 10838123.329998 277.339996
993659.190002 10838122.060001 279.679993
993656.700012 10838123.990002 278.510010
993652.140015 10838120.649998 277.399994
993659.940002 10838123.829998 279.679993
993658.339996 10838126.619999 278.709991
993657.040009 10838122.079998 278.910004
993651.799988 10838123.700001 276.850006
993656.010010 10838123.420002 278.339996
993655.549988 10838114.070000 279.889984
993656.829987 10838126.520001 278.190002
993653.119995 10838113.389999 279.190002
993655.529999 10838113.649998 279.959991
993649.040009 10838112.730000 277.820007
993655.250000 10838116.680000 279.389984
993653.649994 10838124.340000 277.369995
993653.609985 10838123.509998 277.500000
993649.890015 10838112.779999 278.100006
993656.260010 10838128.840000 277.630005
993655.790009 10838127.359997 277.669983
993656.049988 10838124.259998 278.239990
993655.489990 10838112.799999 280.059998
993658.290009 10838125.380001 278.860016
993653.739990 10838110.579998 279.769989
993658.420013 10838128.270001 278.500000
993661.029999 10838125.009998 279.899994
993657.970001 10838126.969997 278.519989
993656.630005 10838113.680000 280.320007
993654.899994 10838124.490002 277.769989
993650.799988 10838120.389996 276.970001
993656.149994 10838112.849999 280.299988
993650.399994 10838112.169998 278.380005
993657.459991 10838116.739998 280.179993
993653.869995 10838128.910000 276.760010
993659.290009 10838124.200001 279.399994
993657.619995 10838119.770001 279.480011
993654.369995 10838113.549999 279.540009
993653.730011 10838125.999996 277.179993
993655.600006 10838114.919998 279.769989
993656.600006 10838121.859997 278.790009
993655.970001 10838122.579998 278.450012
993651.630005 10838120.299999 277.269989
993654.489990 10838125.569996 277.510010
993650.480011 10838113.899998 278.139984
993653.850006 10838112.719997 279.500000
993660.480011 10838126.799999 279.429993
993650.420013 10838112.599999 278.350006
993658.940002 10838125.410000 279.080017
993654.269989 10838111.449997 279.830017
993655.470001 10838120.999996 278.519989
993656.750000 10838116.180000 280.010010
993651.649994 10838120.719997 277.230011
993658.049988 10838120.359997 279.570007
993655.429993 10838111.509998 280.220001
993653.239990 10838125.869999 277.000000
993651.730011 10838112.199997 278.830017
993656.119995 10838112.410000 280.360016
993656.809998 10838126.100002 278.220001
993652.549988 10838112.160000 279.130005
993658.109985 10838121.619999 279.380005
993653.070007 10838122.490002 277.429993
993652.299988 10838123.990002 276.959991
993655.869995 10838120.459995 278.760010
993653.429993 10838119.759998 277.989990
993651.790009 10838113.469997 278.649994
993655.850006 10838128.619999 277.500000
993656.850006 10838126.939999 278.089996
993655.559998 10838122.700001 278.290009
993653.489990 10838121.009998 277.809998
993656.619995 10838122.289997 278.739990
993651.279999 10838113.379997 278.500000
993657.179993 10838124.990002 278.540009
993659.309998 10838124.619999 279.339996
993658.010010 10838127.799999 278.429993
993654.679993 10838129.369999 276.989990
993657.359985 10838114.609997 280.339996
993656.769989 10838116.609997 279.970001
993654.540009 10838126.429997 277.380005
993655.720001 10838126.079998 277.850006
993657.480011 10838117.169998 280.139984
993656.790009 10838117.019997 279.889984
993654.350006 10838113.139999 279.610016
993657.910004 10838125.710003 278.669983
993651.709991 10838111.779999 278.880005
993651.170013 10838111.230000 278.769989
993653.529999 10838121.840000 277.720001
993654.929993 10838125.310001 277.690002
993656.670013 10838114.500000 280.279999
993656.100006 10838111.980000 280.470001
993653.769989 10838126.840000 277.059998
993657.809998 10838123.590000 278.970001
993659.899994 10838122.990002 279.790009
993655.070007 10838128.210003 277.309998
993654.059998 10838117.009998 278.940002
993651.709991 10838121.990002 277.059998
993653.260010 10838126.289997 276.959991
993656.980011 10838120.840000 279.080017
993652.480011 10838110.869999 279.299988
993656.809998 10838117.439999 279.820007
993655.470001 10838112.369999 280.110016
993653.790009 10838127.240002 277.000000
993654.489990 10838116.079998 279.239990
993658.399994 10838127.859997 278.559998
993654.250000 10838111.019997 279.880005
993655.529999 10838122.270001 278.350006
993653.549988 10838122.259998 277.660004
993654.970001 10838111.099999 280.149994
993657.100006 10838123.329998 278.750000
993657.720001 10838121.890003 279.179993
993656.239990 10838128.429997 277.720001
993652.260010 10838123.149998 277.059998
993651.690002 10838111.349999 278.950012
993653.690002 10838125.179997 277.279999
993655.269989 10838117.099999 279.360016
993657.700012 10838121.469997 279.239990
993653.279999 10838126.719997 276.919983
993653.709991 10838125.579998 277.250000
993655.660004 10838124.810001 278.000000
993654.000000 10838115.719997 279.160004
993659.350006 10838125.480000 279.230011
993652.320007 10838124.410000 276.889984
993654.450012 10838115.230000 279.360016
993660.350006 10838123.899998 279.820007
993653.299988 10838127.130001 276.850006
993655.510010 10838121.840000 278.419983
993653.570007 10838122.679997 277.610016
993653.089996 10838122.910000 277.399994
993649.079987 10838113.579998 277.690002
993651.750000 10838112.619999 278.769989
993654.859985 10838123.640003 277.919983
993656.190002 10838113.709999 280.179993
993660.089996 10838126.780003 279.290009
993660.369995 10838124.319996 279.750000
993655.119995 10838114.109997 279.760010
993654.429993 10838124.310001 277.649994
993655.890015 10838129.450001 277.410004
993652.200012 10838121.910000 277.230011
993660.010010 10838125.100002 279.500000
993654.329987 10838112.709999 279.669983
993651.690002 10838121.579998 277.110016
993651.769989 10838113.039997 278.709991
993652.959991 10838120.350002 277.720001
993659.369995 10838125.910000 279.179993
993654.760010 10838121.569996 278.179993
993655.230011 10838116.250000 279.480011
993654.839996 10838123.230000 277.959991
993657.640015 10838120.200001 279.429993
993650.899994 10838122.549999 276.660004
993661.529999 10838127.090000 279.760010
993655.190002 10838115.399998 279.580017
993656.070007 10838124.670002 278.169983
993657.679993 10838121.039997 279.299988
993658.380005 10838127.450001 278.600006
993654.720001 10838120.730000 278.320007
993654.519989 10838125.999996 277.440002
993656.869995 10838127.359997 278.070007
993659.010010 10838126.679997 278.910004
993654.540009 10838117.340000 279.070007
993659.149994 10838121.219997 279.779999
993652.609985 10838113.439999 279.029999
993657.950012 10838126.539997 278.580017
993651.670013 10838121.149998 277.160004
993654.600006 10838127.700001 277.209991
993658.049988 10838128.649998 278.320007
993655.000000 10838111.529999 280.080017
993652.529999 10838111.730000 279.179993
993658.209991 10838123.710003 279.089996
993653.470001 10838120.579998 277.889984
993654.640015 10838128.530003 277.089996
993654.579987 10838127.270001 277.279999
993650.880005 10838122.109997 276.720001
993654.230011 10838110.609997 279.970001
993654.309998 10838121.759998 277.970001
993653.019989 10838111.289997 279.410004
993653.079987 10838112.559998 279.239990
993659.269989 10838123.780003 279.440002
993654.470001 10838125.160000 277.540009
993657.329987 10838128.299999 278.100006
993655.489990 10838121.429997 278.470001
993653.670013 10838124.749996 277.330017
993654.970001 10838126.149998 277.570007
993660.519989 10838127.619999 279.330017
993658.880005 10838124.130001 279.260010
993656.290009 10838115.849999 279.889984
993659.209991 10838122.499996 279.630005
993657.000000 10838121.259998 279.010010
993655.410004 10838111.090000 280.299988
993650.779999 10838119.969997 277.040009
993653.279999 10838116.759998 278.709991
993653.000000 10838110.859997 279.510010
993657.079987 10838122.910000 278.809998
993654.410004 10838123.880001 277.720001
993656.170013 10838126.770001 277.899994
993653.510010 10838121.429997 277.779999
993655.140015 10838114.529999 279.709991
993653.790009 10838111.439999 279.639984
993656.579987 10838121.429997 278.860016
993656.359985 10838117.119999 279.750000
993651.190002 10838111.660000 278.730011
993655.390015 10838110.660000 280.350006
993659.390015 10838126.340000 279.110016
993657.869995 10838124.869999 278.779999
993658.799988 10838122.460003 279.480011
993654.040009 10838116.590000 278.980011
993658.170013 10838122.869999 279.200012
993650.459991 10838113.459999 278.179993
993656.910004 10838128.200001 277.970001
993651.609985 10838119.869999 277.350006
993650.309998 10838120.999996 276.709991
993654.559998 10838126.850002 277.309998
993657.290009 10838127.460003 278.220001
993653.130005 10838123.759998 277.279999
993656.720001 10838124.399998 278.450012
993656.190002 10838127.179997 277.850006
993661.489990 10838126.270001 279.919983
993656.660004 10838123.130001 278.630005
993657.230011 10838126.230000 278.380005
993655.450012 10838120.569996 278.589996
993655.640015 10838124.380001 278.089996
993653.049988 10838122.049999 277.519989
993653.829987 10838128.079998 276.889984
993657.739990 10838122.319996 279.119995
993657.059998 10838122.499996 278.850006
993658.760010 10838121.600002 279.589996
993654.619995 10838128.109997 277.169983
993656.260010 10838115.019997 279.860016
993654.820007 10838122.819996 278.029999
993656.709991 10838115.349999 280.139984
993660.429993 10838125.549999 279.600006
993657.269989 10838127.060001 278.260010
993649.850006 10838111.930000 278.220001
993656.959991 10838120.420002 279.130005
993653.059998 10838112.129997 279.320007
993656.149994 10838126.340000 277.980011
993652.920013 10838119.499996 277.850006
993654.290009 10838111.869999 279.760010
993651.209991 10838112.090000 278.669983
993657.890015 10838125.280003 278.730011
993656.029999 10838123.840000 278.290009
993654.989990 10838126.549999 277.510010
993653.890015 10838113.579998 279.389984
993654.309998 10838112.289997 279.720001
993658.299988 10838125.780003 278.820007
993655.700012 10838125.670002 277.899994
993652.980011 10838120.780003 277.660004
993655.019989 10838111.949997 280.029999
993659.230011 10838122.929997 279.570007
993654.450012 10838124.730000 277.630005
993658.250000 10838124.539997 278.980011
993654.260010 10838120.899998 278.110016
993657.140015 10838124.149998 278.630005
993659.410004 10838126.749996 279.070007
993655.600006 10838123.539997 278.190002
993660.410004 10838125.149998 279.639984
993661.510010 10838126.689999 279.830017
993655.829987 10838128.189999 277.570007
993657.660004 10838120.609997 279.350006
993649.959991 10838114.079998 277.929993
993659.029999 10838127.100002 278.880005
993654.779999 10838121.980000 278.139984
993650.440002 10838113.019997 278.279999
993653.410004 10838119.319996 278.089996
993659.920013 10838123.420002 279.760010
993658.920013 10838124.980000 279.179993
993658.190002 10838123.289997 279.149994
993656.209991 10838114.139999 280.119995
993654.470001 10838115.660000 279.299988
993655.910004 10838121.319996 278.639984
993655.029999 10838127.390003 277.429993
993657.190002 10838125.390003 278.489990
993658.899994 10838124.560001 279.200012
993650.839996 10838121.259998 276.869995
993660.390015 10838124.730000 279.720001
993660.500000 10838127.210003 279.369995
993651.829987 10838124.149998 276.649994
993655.579987 10838123.109997 278.239990
993653.809998 10838127.660000 276.950012
993659.859985 10838122.160000 279.860016
993656.540009 10838120.590000 278.970001
993657.880005 10838116.959999 280.320007
993653.149994 10838124.189999 277.220001
993655.619995 10838115.349999 279.730011
993658.679993 10838119.910000 279.850006
993658.720001 10838120.759998 279.700012
993657.209991 10838125.810001 278.419983
993648.500000 10838112.549999 277.639984
993657.769989 10838122.749996 279.059998
993656.649994 10838114.099999 280.299988
993654.799988 10838122.399998 278.070007
993658.359985 10838127.030003 278.649994
993653.190002 10838125.030003 277.119995
993657.790009 10838123.170002 279.000000
993656.679993 10838123.560001 278.559998
993650.380005 10838111.730000 278.419983
993655.720001 10838117.459995 279.440002
993652.500000 10838111.289997 279.239990
993653.630005 10838123.929997 277.419983
993655.010010 10838126.969997 277.489990
993656.209991 10838127.600002 277.779999
993657.350006 10838128.700001 278.049988
993652.100006 10838119.810001 277.510010
993661.480011 10838125.880001 279.820007
993650.820007 10838120.829998 276.889984
993655.690002 10838117.039997 279.540009
993657.820007 10838115.709999 280.360016
993656.130005 10838125.929997 278.000000
993660.470001 10838126.390003 279.480011
993658.089996 10838121.200001 279.410004
993649.059998 10838113.160000 277.750000
993656.089996 10838111.570000 280.380005
993660.019989 10838125.520001 279.470001
993656.170013 10838113.279999 280.230011
993654.390015 10838113.980000 279.489990
993655.369995 10838110.219997 280.470001
993656.640015 10838122.710003 278.690002
993653.760010 10838110.989998 279.730011
993658.149994 10838122.460003 279.239990
993656.609985 10838113.239998 280.480011
993654.420013 10838114.809998 279.429993
993649.910004 10838113.219997 278.049988
993654.369995 10838123.030003 277.830017
993654.079987 10838117.450001 278.869995
993652.359985 10838125.249996 276.739990
993661.130005 10838127.140003 279.619995
993659.130005 10838120.770001 279.929993
993656.380005 10838117.560001 279.660004
993658.739990 10838121.179997 279.649994
993654.390015 10838123.460003 277.750000
993659.250000 10838123.350002 279.489990
993653.320007 10838127.569996 276.750000
993652.179993 10838121.490002 277.279999
993659.980011 10838124.679997 279.570007
993657.309998 10838127.880001 278.179993
993651.760010 10838122.859997 276.950012
993658.779999 10838122.030003 279.510010
993656.230011 10838114.559998 280.059998
993649.929993 10838113.649998 277.980011
993653.040009 10838111.699997 279.380005
993652.220001 10838122.329998 277.169983
993658.029999 10838128.219997 278.369995
993660.049988 10838125.950001 279.410004
993659.450012 10838127.609997 278.950012
993655.049988 10838127.789997 277.380005
993659.429993 10838127.179997 279.010010
993657.019989 10838121.670002 278.959991
993650.859985 10838121.679997 276.769989
993658.980011 10838126.249996 278.980011
993657.850006 10838124.439999 278.850006
993650.290009 10838120.579998 276.760010
993655.670013 10838116.619999 279.570007
993658.130005 10838122.039997 279.299988
993656.940002 10838120.009998 279.190002
993655.160004 10838114.959999 279.660004
993654.019989 10838116.160000 279.080017
993652.239990 10838122.749996 277.130005
993652.119995 10838120.230000 277.459991
993651.260010 10838112.959999 278.559998
993657.859985 10838116.539997 280.369995
993659.040009 10838127.509998 278.839996
993655.890015 10838120.890003 278.690002
993659.470001 10838128.020001 278.899994
993653.809998 10838111.869999 279.589996
993658.820007 10838122.869999 279.419983
993656.739990 10838124.829998 278.410004
993660.109985 10838127.210003 279.209991
993653.829987 10838112.279999 279.589996
993652.279999 10838123.579998 277.010010
993649.019989 10838112.299999 277.850006
993656.339996 10838116.699997 279.799988
993657.929993 10838126.130001 278.630005
993657.440002 10838116.299999 280.239990
993653.100006 10838112.980000 279.200012
993649.869995 10838112.349999 278.149994
993657.119995 10838123.749996 278.679993
993661.049988 10838125.420002 279.889984
993658.010010 10838119.529995 279.669983
993652.570007 10838112.599999 279.049988
993652.160004 10838121.060001 277.330017
993653.910004 10838114.000000 279.419983
993653.170013 10838124.600002 277.179993
993657.600006 10838119.340000 279.529999
993659.880005 10838122.560001 279.910004
993658.269989 10838124.960003 278.929993
993654.290009 10838121.329998 278.049988
993653.450012 10838120.170002 277.950012
993654.660004 10838128.960003 277.059998
993655.040009 10838112.389999 279.970001
993650.269989 10838120.149998 276.830017
993656.279999 10838115.449997 279.830017
993658.859985 10838123.719997 279.320007
993652.589996 10838113.009998 279.040009
993654.519989 10838116.910000 279.149994
993658.649994 10838119.480000 279.919983
993661.109985 10838126.719997 279.669983
993657.989990 10838127.390003 278.459991
993654.869995 10838124.069996 277.860016
993661.089996 10838126.299999 279.720001
993654.350006 10838122.609997 277.860016
993649.109985 10838114.019997 277.589996
993656.730011 10838115.759998 280.059998
993657.839996 10838116.109997 280.480011
993656.890015 10838127.780003 278.040009
993656.519989 10838120.160000 279.010010
993655.059998 10838112.820000 279.919983
993654.119995 10838118.289997 278.769989
993652.940002 10838119.920002 277.769989
993654.929993 10838110.230000 280.260010
993655.100006 10838113.680000 279.830017
993652.799988 10838117.309998 278.459991
993656.109985 10838125.520001 278.080017
993659.070007 10838127.929997 278.769989
993651.779999 10838123.270001 276.889984
993654.739990 10838121.149998 278.239990
993651.739990 10838122.429997 277.000000
993654.950012 10838110.660000 280.209991
993656.089996 10838125.100002 278.130005
993652.339996 10838124.829998 276.830017
993658.029999 10838119.939999 279.600006
993661.070007 10838125.859997 279.769989
993653.589996 10838123.090000 277.529999
993653.750000 10838126.420002 277.110016
993653.320007 10838117.600002 278.600006
993653.029999 10838121.630001 277.570007
993655.570007 10838114.500000 279.850006
993654.950012 10838125.730000 277.630005
993655.799988 10838127.770001 277.649994
993655.309998 10838117.959995 279.250000
993658.230011 10838124.130001 279.029999
993653.220001 10838125.450001 277.080017
993655.950012 10838122.160000 278.510010
993657.250000 10838126.649998 278.320007
993656.559998 10838121.020001 278.899994
993655.739990 10838126.509998 277.790009
993656.309998 10838116.269997 279.839996
993653.010010 10838121.210003 277.639984
993658.839996 10838123.289997 279.380005
993657.829987 10838124.009998 278.929993
993655.079987 10838113.239998 279.860016
993654.329987 10838122.170002 277.950012
993660.130005 10838127.630001 279.190002
993656.589996 10838112.849999 280.389984
993658.700012 10838120.329998 279.760010
993655.290009 10838117.529995 279.299988
993659.959991 10838124.259998 279.639984
993656.950012 10838129.030003 277.869995
993656.929993 10838128.609997 277.940002
993656.769989 10838125.259998 278.339996
993660.329987 10838123.490002 279.919983
993660.450012 10838125.969997 279.540009
993655.730011 10838117.880001 279.419983
993655.760010 10838126.929997 277.760010
993656.230011 10838128.020001 277.739990
993655.619995 10838123.969997 278.130005
993660.070007 10838126.359997 279.339996
993655.450012 10838111.930000 280.200012
993658.320007 10838126.210003 278.739990
993653.299988 10838117.180000 278.649994
993656.790009 10838125.670002 278.290009
993658.070007 10838120.789997 279.480011
993654.910004 10838124.899998 277.760010
993657.160004 10838124.569996 278.600006
993655.209991 10838115.820000 279.510010
993658.959991 10838125.819996 279.049988
993653.869995 10838113.160000 279.410004
993655.660004 10838116.189999 279.610016
993655.679993 10838125.240002 277.959991
993655.630005 10838115.769997 279.700012
993657.380005 10838115.019997 280.450012
993654.570007 10838117.759998 279.019989
993654.510010 10838116.489998 279.160004
993654.910004 10838109.809998 280.309998
993654.200012 10838110.180000 280.019989
993655.929993 10838121.740002 278.589996
993659.170013 10838121.640003 279.769989
993657.420013 10838115.879997 280.309998
993657.399994 10838115.459999 280.330017
993655.510010 10838113.219997 280.000000
993655.989990 10838122.999996 278.399994
