993663.130005 10838123.770001 278.889984
993667.730011 10838123.530003 277.260010
993668.350006 10838123.060001 276.980011
993663.890015 10838117.119999 277.639984
993660.920013 10838122.140003 279.450012
993663.290009 10838117.149998 277.889984
993659.829987 10838121.340000 279.730011
993662.290009 10838118.539997 278.440002
993667.230011 10838121.119999 277.059998
993663.529999 10838123.710003 278.760010
993664.220001 10838125.700001 278.850006
993665.279999 10838125.530003 278.419983
993666.279999 10838124.460003 277.899994
993665.089996 10838120.689999 277.760010
993664.359985 10838118.679997 277.720001
993660.179993 10838119.520001 279.320007
993666.690002 10838124.990002 277.860016
993665.130005 10838121.509998 277.850006
993665.140015 10838121.910000 277.919983
993661.450012 10838125.090000 279.720001
993666.260010 10838124.049999 277.860016
993665.250000 10838124.730000 278.299988
993667.279999 10838122.340000 277.239990
993664.940002 10838116.599999 277.209991
993663.320007 10838117.969997 277.980011
993660.149994 10838118.709995 279.200012
993660.269989 10838121.910000 279.649994
993666.559998 10838121.429997 277.320007
993659.790009 10838120.130001 279.540009
993665.519989 10838121.319996 277.690002
993663.329987 10838118.389996 278.019989
993662.880005 10838117.259998 278.029999
993661.880005 10838118.770001 278.610016
993660.940002 10838122.539997 279.519989
993661.359985 10838122.719997 279.380005
993661.230011 10838119.130001 278.889984
993661.910004 10838119.600002 278.709991
993659.760010 10838119.310001 279.419983
993662.390015 10838121.359997 278.809998
993664.049988 10838121.219997 278.209991
993663.500000 10838122.899998 278.660004
993664.029999 10838120.810001 278.149994
993661.859985 10838118.369999 278.559998
993660.970001 10838123.380001 279.610016
993662.540009 10838125.340000 279.350006
993665.160004 10838122.310001 277.980011
993663.179993 10838124.980000 279.059998
993661.329987 10838121.920002 279.279999
993668.769989 10838123.649998 276.899994
993661.420013 10838124.310001 279.600006
993662.040009 10838122.840000 279.149994
993664.980011 10838117.829998 277.369995
993665.450012 10838119.270001 277.389984
993665.510010 10838120.899998 277.649994
993665.670013 10838125.399998 278.260010
993662.450012 10838122.960003 279.040009
993661.959991 10838120.819996 278.880005
993665.459991 10838119.670002 277.480011
993661.269989 10838120.329998 279.040009
993663.940002 10838118.350002 277.830017
993664.970001 10838117.420002 277.320007
993663.619995 10838126.149998 279.080017
993663.489990 10838122.490002 278.589996
993667.359985 10838124.380001 277.540009
993663.190002 10838125.359997 279.200012
993667.299988 10838122.749996 277.290009
993664.200012 10838125.299999 278.739990
993662.940002 10838118.899998 278.239990
993668.369995 10838123.460003 277.040009
993662.149994 10838125.660000 279.540009
993660.910004 10838121.719997 279.399994
993666.500000 10838119.819996 277.130005
993667.630005 10838120.640003 276.820007
993663.600006 10838125.749996 279.049988
993665.480011 10838120.090000 277.519989
993666.679993 10838124.590000 277.769989
993661.899994 10838119.179997 278.669983
993661.940002 10838120.410000 278.830017
993660.790009 10838118.819996 279.010010
993666.600006 10838122.609997 277.529999
993666.250000 10838123.630001 277.779999
993667.190002 10838119.880001 276.910004
993662.019989 10838122.439999 279.100006
993663.390015 10838120.029995 278.279999
993661.179993 10838117.929997 278.720001
993660.290009 10838122.299999 279.730011
993663.410004 10838120.450001 278.330017
993664.459991 10838121.399998 278.080017
993662.989990 10838120.119999 278.419983
993659.799988 10838120.539997 279.610016
993662.410004 10838121.759998 278.869995
993663.450012 10838121.679997 278.489990
993660.140015 10838118.319996 279.149994
993662.420013 10838122.149998 278.919983
993663.980011 10838119.590000 277.970001
993664.079987 10838122.039997 278.330017
993666.040009 10838118.240002 277.070007
993662.579987 10838126.520001 279.529999
993664.429993 10838120.609997 277.989990
993659.070007 10838119.149998 279.649994
993666.470001 10838119.020001 276.980011
993666.570007 10838121.810001 277.399994
993660.320007 10838123.090000 279.809998
993666.170013 10838121.579998 277.510010
993665.200012 10838123.520001 278.149994
993661.369995 10838123.109997 279.429993
993668.380005 10838123.880001 277.089996
993666.119995 10838120.340000 277.320007
993661.019989 10838124.609997 279.769989
993668.299988 10838121.799999 276.779999
993665.109985 10838121.100002 277.830017
993666.179993 10838121.980000 277.559998
993663.899994 10838117.529995 277.720001
993666.140015 10838120.740002 277.399994
993668.739990 10838122.859997 276.799988
993664.350006 10838118.289997 277.630005
993664.410004 10838119.840000 277.860016
993661.290009 10838120.730000 279.110016
993660.230011 10838120.710003 279.510010
993660.260010 10838121.499996 279.600006
993664.000000 10838119.999996 278.049988
993660.170013 10838119.109997 279.279999
993662.010010 10838122.030003 279.059998
993663.970001 10838119.179997 277.919983
993659.109985 10838120.369999 279.860016
993661.320007 10838121.520001 279.200012
993665.640015 10838124.590000 278.160004
993663.160004 10838124.579998 278.980011
993662.160004 10838126.060001 279.589996
993665.609985 10838123.770001 278.040009
993662.320007 10838119.340000 278.549988
993665.029999 10838119.049999 277.559998
993663.149994 10838124.160000 278.959991
993664.320007 10838117.509998 277.540009
993668.779999 10838124.049999 276.970001
993666.630005 10838123.399998 277.639984
993667.220001 10838120.710003 277.019989
993662.959991 10838119.310001 278.299988
993664.170013 10838124.480000 278.630005
993666.619995 10838122.999996 277.570007
993664.549988 10838123.700001 278.410004
993664.380005 10838119.079998 277.730011
993662.299988 10838118.939999 278.480011
993660.200012 10838119.920002 279.389984
993663.510010 10838123.310001 278.720001
993664.450012 10838121.009998 278.019989
993663.920013 10838117.939999 277.750000
993662.049988 10838123.249996 279.200012
993667.609985 10838120.219997 276.799988
993662.480011 10838123.749996 279.139984
993661.239990 10838119.529995 278.940002
993661.429993 10838124.700001 279.649994
993661.260010 10838119.939999 279.000000
993662.489990 10838124.149998 279.209991
993663.079987 10838122.560001 278.750000
993662.910004 10838118.090000 278.130005
993664.230011 10838126.100002 278.860016
993665.049988 10838119.469997 277.600006
993666.549988 10838121.020001 277.290009
993666.200012 10838122.399998 277.630005
993660.829987 10838119.649998 279.100006
993663.100006 10838122.960003 278.779999
993663.589996 10838125.340000 278.989990
993662.510010 10838124.549999 279.220001
993667.739990 10838123.929997 277.330017
993660.809998 10838119.240002 279.059998
993661.989990 10838121.630001 278.989990
993665.420013 10838118.429997 277.299988
993664.190002 10838124.880001 278.720001
993663.070007 10838122.149998 278.690002
993666.089996 10838119.490002 277.230011
993665.630005 10838124.179997 278.080017
993664.119995 10838123.259998 278.500000
993662.190002 10838126.869999 279.730011
993662.079987 10838124.049999 279.309998
993665.579987 10838122.950001 277.919983
993668.750000 10838123.259998 276.839996
993666.070007 10838119.090000 277.190002
993665.190002 10838123.119999 278.089996
993667.679993 10838122.299999 277.080017
993664.019989 10838120.420002 278.070007
993666.290009 10838124.859997 277.959991
993665.019989 10838118.649998 277.500000
993660.779999 10838118.389996 278.970001
993667.760010 10838124.350002 277.369995
993664.160004 10838124.079998 278.600006
993664.109985 10838122.859997 278.429993
993665.079987 10838120.289997 277.700012
993663.950012 10838118.770001 277.869995
993663.559998 10838124.539997 278.880005
993664.950012 10838117.019997 277.260010
993663.359985 10838119.200001 278.149994
993662.970001 10838119.709995 278.350006
993667.250000 10838121.520001 277.149994
993663.299988 10838117.569996 277.929993
993665.570007 10838122.539997 277.860016
993662.070007 10838123.649998 279.269989
993668.399994 10838124.289997 277.169983
993666.660004 10838124.179997 277.769989
993663.420013 10838120.850002 278.389984
993665.489990 10838120.499996 277.589996
993667.200012 10838120.299999 276.970001
993660.239990 10838121.119999 279.529999
993666.029999 10838117.850002 276.950012
993665.600006 10838123.359997 277.970001
993659.850006 10838121.759998 279.760010
993665.220001 10838123.929997 278.200012
993667.670013 10838121.880001 277.029999
993663.380005 10838119.619999 278.200012
993665.549988 10838122.130001 277.790009
993661.299988 10838121.130001 279.169983
993667.309998 10838123.160000 277.350006
993667.649994 10838121.460003 276.970001
993665.369995 10838117.189999 277.130005
993662.100006 10838124.460003 279.380005
993661.970001 10838121.230000 278.940002
993661.390015 10838123.509998 279.500000
993667.709991 10838123.119999 277.190002
993663.000000 10838120.529995 278.470001
993666.220001 10838122.810001 277.679993
993663.040009 10838121.340000 278.570007
993662.179993 10838126.460003 279.669983
993664.140015 10838123.670002 278.540009
993659.739990 10838118.910000 279.410004
993667.269989 10838121.939999 277.160004
993660.989990 10838123.789997 279.660004
993664.619995 10838125.630001 278.639984
993664.089996 10838122.450001 278.360016
993661.350006 10838122.319996 279.320007
993662.130005 10838125.259998 279.500000
993666.149994 10838121.160000 277.450012
993659.720001 10838118.499996 279.320007
993662.119995 10838124.859997 279.429993
993668.339996 10838122.640003 276.910004
993667.700012 10838122.700001 277.139984
993660.299988 10838122.689999 279.760010
993664.390015 10838119.450001 277.809998
993665.390015 10838117.609997 277.179993
993665.540009 10838121.730000 277.739990
993666.529999 10838120.619999 277.250000
993661.209991 10838118.740002 278.830017
993666.589996 10838122.219997 277.440002
993665.359985 10838116.769997 277.089996
993663.440002 10838121.270001 278.419983
993660.859985 10838120.480000 279.230011
993667.640015 10838121.060001 276.929993
993660.869995 10838120.890003 279.290009
993662.359985 10838120.549999 278.690002
993664.489990 10838122.170002 278.179993
993668.320007 10838122.219997 276.850006
993660.890015 10838121.310001 279.309998
993658.640015 10838119.069996 279.830017
993664.519989 10838122.939999 278.299988
993664.309998 10838117.109997 277.510010
993659.820007 10838120.939999 279.649994
993664.559998 10838124.090000 278.440002
993659.769989 10838119.719997 279.500000
993666.649994 10838123.810001 277.660004
993663.570007 10838124.929997 278.929993
993659.079987 10838119.549999 279.720001
993661.929993 10838120.009998 278.779999
993661.829987 10838117.549999 278.410004
993664.059998 10838121.640003 278.260010
993663.220001 10838126.179997 279.220001
993666.230011 10838123.210003 277.730011
993665.059998 10838119.880001 277.649994
993666.519989 10838120.230000 277.200012
993663.109985 10838123.359997 278.860016
993667.339996 10838123.969997 277.440002
993661.459991 10838125.499996 279.750000
993663.549988 10838124.130001 278.809998
993664.600006 10838125.240002 278.630005
993662.570007 10838126.130001 279.450012
993665.230011 10838124.319996 278.260010
993666.489990 10838119.420002 277.089996
993660.839996 10838120.060001 279.179993
993661.399994 10838123.920002 279.519989
993665.260010 10838125.130001 278.389984
993662.429993 10838122.549999 278.989990
993664.290009 10838116.730000 277.440002
993662.380005 10838120.950001 278.750000
993665.410004 10838118.029995 277.250000
993664.420013 10838120.240002 277.910004
993661.000000 10838124.200001 279.700012
993662.329987 10838119.749996 278.589996
993662.269989 10838118.139996 278.389984
993662.350006 10838120.149998 278.660004
993667.329987 10838123.560001 277.429993
993659.059998 10838118.740002 279.589996
993665.339996 10838116.369999 277.019989
993662.899994 10838117.679997 278.070007
993664.529999 10838123.329998 278.339996
993666.059998 10838118.670002 277.110016
993664.510010 10838122.560001 278.209991
993665.440002 10838118.850002 277.360016
993667.170013 10838119.490002 276.830017
993663.019989 10838120.939999 278.519989
993665.170013 10838122.719997 278.040009
993663.350006 10838118.799999 278.089996
993662.549988 10838125.719997 279.429993
993663.200012 10838125.759998 279.269989
993661.850006 10838117.959995 278.519989
993662.929993 10838118.490002 278.179993
993662.519989 10838124.939999 279.309998
993660.950012 10838122.960003 279.559998
993659.100006 10838119.959995 279.769989
993665.000000 10838118.249996 277.429993
993660.209991 10838120.310001 279.410004
993662.260010 10838117.730000 278.330017
993664.480011 10838121.789997 278.100006
993661.200012 10838118.329998 278.790009
993664.339996 10838117.910000 277.589996
993663.049988 10838121.740002 278.639984
993665.660004 10838124.990002 278.209991
993662.459991 10838123.350002 279.089996
993663.470001 10838122.090000 278.549988
993666.109985 10838119.910000 277.299988
