496831.640015 5419067.520004 278.690002
496831.920013 5419073.400002 277.899994
496837.239990 5419056.919998 279.119995
496842.970001 5419067.340004 277.019989
496833.380005 5419057.070000 279.630005
496834.510010 5419058.209999 279.399994
496841.190002 5419065.480003 277.360016
496831.700012 5419068.790001 278.510010
496839.070007 5419064.599998 277.980011
496830.980011 5419062.880001 279.480011
496835.589996 5419057.939999 279.220001
496830.829987 5419059.869999 279.860016
496836.619995 5419057.459999 279.209991
496838.480011 5419060.889999 278.429993
496840.109985 5419065.309998 277.720001
496832.929993 5419056.700001 279.790009
496830.149994 5419060.989998 279.690002
496840.100006 5419064.919998 277.630005
496830.769989 5419058.579998 280.029999
496831.619995 5419067.089996 278.760010
496831.959991 5419074.230003 277.779999
496842.940002 5419066.510002 276.910004
496831.739990 5419069.629997 278.399994
496834.070007 5419058.209999 279.570007
496841.859985 5419066.540001 277.299988
496831.820007 5419071.300003 278.169983
496834.040009 5419057.369999 279.450012
496839.510010 5419061.139999 278.089996
496831.799988 5419070.889999 278.239990
496842.950012 5419066.930000 276.970001
496832.010010 5419075.470001 277.630005
496831.859985 5419072.150002 278.080017
496830.850006 5419060.310001 279.830017
496837.859985 5419061.000000 278.649994
496831.769989 5419056.540001 280.139984
496841.839996 5419066.120003 277.230011
496842.250000 5419066.449997 277.130005
496831.720001 5419069.209999 278.450012
496831.899994 5419072.970001 277.980011
496831.000000 5419063.310001 279.389984
496842.239990 5419066.050003 277.089996
496831.989990 5419075.059998 277.720001
496830.700012 5419057.290001 280.209991
496834.529999 5419058.630001 279.480011
496843.359985 5419066.849998 276.799988
496840.089996 5419064.540001 277.589996
496830.890015 5419061.160000 279.709991
496838.929993 5419061.599998 278.350006
496830.790009 5419059.020000 279.970001
496830.940002 5419062.029999 279.580017
496838.470001 5419060.489998 278.360016
496832.220001 5419056.230000 279.950012
496834.500000 5419057.790001 279.339996
496831.980011 5419074.650002 277.739990
496830.720001 5419057.730000 280.149994
496830.679993 5419056.860001 280.260010
496837.660004 5419056.759998 279.119995
496835.179993 5419058.419998 279.360016
496832.250000 5419057.040001 280.049988
496833.390015 5419057.480000 279.700012
496832.950012 5419057.130001 279.820007
496835.600006 5419058.320000 279.360016
496841.820007 5419065.720001 277.190002
496838.260010 5419056.189999 278.989990
496831.880005 5419072.559998 278.000000
496837.820007 5419060.180000 278.540009
496841.200012 5419065.900002 277.389984
496830.910004 5419061.590000 279.660004
496831.940002 5419073.809998 277.850006
496837.839996 5419060.590000 278.589996
496835.170013 5419058.020000 279.200012
496832.239990 5419056.630001 279.989990
496836.200012 5419057.689999 279.230011
496830.869995 5419060.739998 279.760010
496840.750000 5419064.879997 277.429993
496839.670013 5419064.570000 277.750000
496838.630005 5419063.889999 278.029999
496838.649994 5419064.309998 278.070007
496830.959991 5419062.450001 279.510010
496832.970001 5419057.529999 279.850006
496831.779999 5419070.470001 278.290009
496831.600006 5419066.690002 278.760010
496838.899994 5419060.759998 278.250000
496831.019989 5419063.730000 279.360016
496837.410004 5419060.360001 278.750000
496841.170013 5419065.059998 277.299988
496830.750000 5419058.160000 280.080017
496836.609985 5419057.079998 279.070007
496831.839996 5419071.730003 278.130005
496831.040009 5419064.159996 279.299988
496830.809998 5419059.450001 279.919983
496831.059998 5419064.589996 279.250000
496839.649994 5419064.159996 277.720001
496834.049988 5419057.790001 279.500000
496838.920013 5419061.180000 278.279999
496833.410004 5419057.899998 279.739990
496832.029999 5419075.889999 277.600006
496843.380005 5419067.270004 276.820007
496838.500000 5419061.310001 278.459991
496830.660004 5419056.439999 280.309998
496831.760010 5419056.139999 280.089996
496839.049988 5419064.199997 277.929993
496831.760010 5419070.050003 278.339996
496839.690002 5419064.980003 277.830017
496840.779999 5419065.680000 277.559998
496840.769989 5419065.279999 277.500000
496839.040009 5419063.779999 277.889984
496831.679993 5419068.370003 278.589996
496831.660004 5419067.949997 278.639984
